ply
                format ascii 1.0
                element vertex 100000
                property float x
                property float y
                property float z
                end_header
2.047985 1.500065 3.616678
3.151036 5.225094 0.931007
4.194465 3.001555 0.859282
4.332066 5.892158 2.126461
4.789258 3.337304 2.563550
1.069167 0.093475 2.371464
0.805129 2.743287 3.042782
3.106940 5.353569 2.861362
3.300509 4.808414 3.280757
1.197382 0.622149 1.063060
1.351190 4.860939 0.828145
2.902985 4.406293 0.370999
1.467510 3.186982 0.479716
4.524573 3.387117 1.097004
4.178462 1.102354 1.425490
4.311463 3.551559 0.847659
0.674317 4.440487 2.823368
0.424547 2.561851 2.534079
1.512702 0.111982 3.878560
4.465194 3.794494 1.020806
3.067356 3.345038 0.351674
1.261681 4.630798 3.191467
2.801695 0.404519 0.189183
0.368493 2.818612 2.351228
3.558778 5.600282 2.367564
0.195719 5.352014 1.572641
4.450452 4.207229 1.136560
4.142095 1.435364 1.617005
1.416444 0.004811 1.494208
1.682002 4.031358 0.388368
0.935137 1.788168 1.741522
1.226547 1.498280 3.410292
3.989595 0.168042 1.850358
1.052989 2.287369 1.090678
2.164127 4.132492 0.320923
4.675321 3.695434 1.314594
3.835855 0.412254 3.709614
4.282075 1.124776 1.874814
2.663292 2.258231 0.642955
4.298762 0.960539 1.941887
0.339427 4.136240 1.436000
0.979849 0.561757 2.608897
0.082156 5.261041 2.088534
3.933175 3.470286 3.355054
3.828545 5.394324 2.867478
4.473705 4.824589 2.591820
1.333849 3.474123 0.481406
2.640427 1.774616 0.735529
2.883591 4.247437 0.334148
4.042774 2.250112 1.259007
1.072565 1.406813 1.238964
4.327470 5.326294 2.776054
3.601561 0.970431 0.921421
1.078492 1.332118 2.939665
0.912805 0.399354 2.019159
2.585394 4.316778 3.614579
3.945882 0.866052 3.734371
0.899166 4.500571 3.010556
2.762156 0.251265 3.519843
0.696092 5.619497 2.367553
3.101047 5.936703 2.863158
1.437320 5.385873 1.414929
1.310087 0.004680 2.026769
0.834990 5.911304 2.302961
2.813209 0.503064 0.237327
4.121971 4.322245 3.086646
3.021914 4.100908 3.623649
1.697713 4.995517 3.153328
1.653379 3.794719 0.386061
0.580858 4.113217 1.043924
0.748826 2.690141 1.044104
4.137131 4.785587 2.767198
0.466533 4.565666 2.401611
1.588399 0.211416 0.765245
0.930487 0.387363 2.223237
4.210202 3.225442 3.131485
3.107468 1.678469 3.371383
2.560181 0.215775 3.524349
4.812932 3.703156 2.222412
2.606207 0.004857 0.919814
2.516873 3.451322 3.731545
3.973436 0.133619 2.145627
3.444131 4.311657 0.469864
4.533723 5.635700 1.677779
2.786750 0.804260 3.996072
3.734852 0.173113 3.015888
2.571502 0.020346 0.627924
3.826739 0.204639 2.749587
0.152117 3.711671 1.967748
3.358219 2.741145 3.443829
2.601694 1.347135 3.437942
3.738419 0.268649 3.440392
2.279487 0.004169 2.478829
3.633167 0.095775 1.078817
3.491410 2.700617 3.382064
3.472965 5.783347 2.611354
2.815914 5.496744 2.714413
1.359427 5.324531 2.556725
3.869397 1.374246 3.170439
0.926529 0.779704 2.327108
0.264892 4.169373 2.240002
2.753361 2.230114 3.291113
1.164310 0.045967 1.509599
1.380365 5.062435 2.935998
3.181594 3.686754 3.652032
0.856480 2.180082 2.371315
2.056858 4.730937 3.421586
1.409027 1.682172 1.243551
1.216924 1.514360 3.088371
3.595116 1.282243 4.054899
3.578809 5.829596 1.863873
3.562257 5.609657 2.632194
2.960605 2.123921 3.140842
1.822789 2.312982 0.720122
0.686359 2.754074 2.878867
1.849293 1.176928 0.647848
2.793397 5.651338 2.059188
0.998031 1.143147 2.880587
1.462010 1.989943 1.536833
2.995292 5.644816 2.564196
0.310815 5.806631 1.619612
4.816272 3.291680 1.972301
2.453705 5.609607 1.459690
1.566999 1.941013 2.719750
3.270681 1.190354 0.728144
1.723299 3.390585 3.619818
2.432403 4.159356 0.303962
4.235858 3.641397 3.157122
2.471931 3.653633 0.289088
0.659974 4.200868 0.988998
3.006353 4.807210 0.562224
1.943673 2.564971 0.555001
4.520352 5.718272 1.736485
4.137482 5.911212 1.791468
1.085506 2.091082 1.442105
0.933205 0.374609 1.777022
0.081627 5.243246 2.331299
2.674228 0.460152 0.052558
2.829719 0.505649 0.305407
1.784777 5.593736 2.147801
4.284547 2.429273 1.340737
1.710799 0.810074 0.623760
4.699919 4.022293 2.634330
0.980508 1.880011 1.927291
2.275376 0.576860 3.599280
3.922118 1.993129 1.772887
3.754183 0.134744 2.809266
2.631293 0.004506 2.104187
2.378111 3.607913 3.721863
0.938719 2.089441 2.105376
3.096479 5.511414 2.872915
3.446729 4.491816 0.534039
2.015570 5.604637 2.340495
2.281778 0.694179 0.272100
1.185006 0.426326 1.105345
1.942166 2.039810 2.989916
0.405877 5.631375 2.367553
3.695919 3.019024 3.409074
3.964459 0.557305 3.233334
0.836386 2.143263 2.122125
4.212500 3.521397 3.190343
1.132564 1.417265 2.974207
3.017220 4.824767 3.349163
4.573368 4.781348 2.813411
1.125005 0.020968 1.982043
2.674196 0.904724 3.803103
2.352088 0.004586 2.588269
3.114952 3.956031 3.636777
0.984599 1.335853 2.428954
4.200873 5.759127 1.540169
0.993031 0.150968 1.895868
3.734744 3.295790 0.540323
1.320328 0.166961 3.412314
1.632243 0.001411 2.182403
2.681318 2.688696 3.552127
3.580718 3.508393 3.605918
3.016523 2.836174 3.564873
4.265615 4.249844 2.986583
4.550550 4.724701 2.023102
2.209359 3.376256 3.743011
1.505075 5.187658 1.047185
2.449778 0.004700 3.163369
4.462564 2.484644 2.274504
1.640148 1.735673 3.002890
1.686836 5.289166 1.073436
3.462769 1.752662 2.847335
3.244502 2.517201 3.378608
2.967659 2.290869 3.309254
2.262064 3.743383 0.296211
3.409690 0.006523 2.937716
2.057444 2.692311 0.487801
1.358813 3.219233 0.506853
1.871806 1.000623 4.113863
0.930925 2.274403 2.688026
1.649427 1.636916 3.871795
4.545960 5.696204 2.178040
2.090624 0.553189 0.444066
4.630806 3.978758 2.717826
4.388629 4.308327 1.110668
3.400477 1.875072 1.190711
2.168603 1.462794 0.633231
3.189322 6.165655 2.407739
3.654584 1.521136 3.813991
3.878887 4.320205 0.675641
4.564218 2.595046 2.100038
4.518841 5.764743 2.340796
4.036341 4.775316 1.056489
3.425977 1.207196 4.112859
2.485070 4.607708 3.510781
2.215542 1.255950 3.833333
0.722286 3.867863 3.099651
4.325261 5.848010 2.367438
2.388223 0.004694 3.143334
0.703237 2.554618 2.741940
4.075626 0.477897 1.923652
3.015553 5.857133 2.655416
4.756377 4.100190 2.156725
3.376239 0.009565 3.376038
1.331931 5.257464 2.650306
3.149657 4.149867 3.587119
4.808789 3.394442 2.204995
4.010212 2.151079 1.416619
4.852360 5.016373 2.309753
0.138438 4.797548 2.222628
1.112752 4.411481 3.210951
0.682518 0.994596 1.938411
1.099943 0.216189 2.643173
0.980116 1.566263 1.346598
3.747660 0.422285 1.041231
2.656514 1.207212 3.477715
1.666122 3.079690 0.449283
0.300538 5.704423 1.563795
2.335136 4.211639 0.313522
5.109171 4.692596 2.433866
4.297297 4.364769 2.899842
1.336398 1.842403 1.372715
1.924975 0.003519 2.636573
4.453419 4.869021 2.581472
2.398502 4.310605 3.616291
3.185822 2.956026 0.447230
4.603233 5.336641 2.713267
3.896815 5.833171 2.660361
0.166235 4.735992 1.854676
2.794464 4.377369 0.351383
2.926300 4.570615 0.430804
2.561806 5.529342 2.682151
4.171072 0.964888 2.334461
0.827095 1.154528 1.404259
3.817201 2.689807 3.226573
0.456983 3.312678 2.824077
2.752479 1.362098 0.585413
2.067896 0.004291 1.471298
3.691447 0.029245 2.692041
1.242638 4.331754 0.606899
4.020542 0.327088 2.305554
1.599654 4.922876 0.752411
4.621441 5.043585 2.283472
4.776247 3.395252 1.590807
1.143328 5.089020 1.204783
0.776785 0.881348 1.492386
0.203175 5.334103 2.367553
5.029469 5.215540 2.595263
0.967352 0.711188 2.895514
3.047325 5.152699 0.825126
4.764085 3.759728 2.392411
1.399632 2.907944 3.417971
2.551360 1.936899 3.188097
2.673239 1.197367 3.478825
2.039467 4.308148 3.586555
3.974097 0.776778 1.428181
3.838856 4.246078 3.299416
3.480279 1.826272 1.240400
1.576087 2.944041 3.492167
0.723969 4.146284 0.902900
4.102376 3.045033 0.778564
4.652906 4.424775 1.873602
1.571932 1.645335 3.705111
4.546564 4.703238 1.965110
3.297081 0.917439 4.146451
3.496841 4.446000 3.388467
0.677362 2.958550 2.944048
0.446226 2.741551 2.472063
0.894095 0.622340 1.862052
1.206709 1.368977 3.874481
0.144241 4.810126 1.833612
3.887891 4.875893 1.013905
1.520802 3.615411 3.569061
1.657140 4.863940 0.687899
1.908080 5.343839 1.049571
1.471693 4.202798 0.473274
2.901773 0.297805 3.908186
1.165955 0.382238 1.148404
1.877767 3.881236 3.650259
2.711235 4.280016 0.325857
3.646459 1.817816 2.482929
0.436812 2.590189 1.758838
3.405871 1.165491 4.122084
1.846147 1.526981 3.983676
4.098718 2.107432 2.020210
2.387245 3.290051 3.802176
0.895985 1.644606 1.583186
4.435992 5.861334 2.309114
1.794791 5.457000 2.636591
4.827092 3.714529 2.127793
3.618209 1.628268 3.098160
4.016525 0.746251 2.892067
0.769276 5.698672 1.504855
3.620536 5.135593 1.074749
1.158228 0.387369 3.513698
2.123503 0.294158 3.645385
4.058051 0.513379 2.284280
3.569255 6.181868 2.548504
3.684806 4.389144 3.327469
0.889123 1.018476 2.415151
1.108752 0.485045 3.684225
1.906713 5.335046 2.884621
1.829674 2.287012 3.259591
1.299958 1.378292 3.977902
2.026904 0.004175 1.575822
0.713698 3.209020 0.865039
3.265562 4.407151 0.442635
0.764183 4.397022 0.976443
0.585514 4.705131 2.449811
0.797898 1.392982 1.732651
1.416348 5.375669 2.509464
0.339978 4.184457 2.478988
3.976943 1.374256 1.322489
3.510314 5.107077 2.955903
1.807895 0.003481 2.995099
2.019488 0.004556 1.250039
0.870456 2.116343 1.978436
0.550307 3.498604 2.987622
0.180917 3.242360 1.980362
0.589661 4.500673 2.667034
1.302147 1.593537 1.302700
3.024809 5.610660 2.748802
3.242692 0.008047 3.284048
0.572880 4.299871 1.137997
2.187984 5.529027 1.276196
4.405981 5.355085 1.509803
0.949239 0.285657 2.175668
4.083075 3.423973 3.265240
0.085385 5.139613 1.964584
0.556099 4.556590 2.564623
2.315814 5.591146 1.411883
2.853827 1.052331 0.514196
3.093342 2.029272 2.954046
1.836318 4.059524 0.359851
3.222893 1.827317 0.992494
1.672829 0.696490 0.630295
0.229149 4.560542 2.164386
4.651331 5.159262 2.605673
2.483643 4.761921 3.437706
3.268400 0.184971 4.010880
2.052502 2.570225 0.534924
4.472001 5.793749 1.701874
1.141022 2.755260 3.233895
1.478655 1.136699 0.883141
1.186058 3.290420 3.402012
3.851662 1.413531 2.897534
1.118572 0.304787 2.890441
2.220557 3.324773 0.313985
5.149379 4.736412 2.583967
3.779202 5.911158 2.452936
0.463516 2.531594 1.815812
2.296358 2.360406 0.605394
1.319937 0.175938 1.039528
4.866940 4.946903 2.712250
3.811873 5.206064 2.789364
4.334983 3.374523 0.887387
2.668638 5.376935 0.999238
3.161546 0.366240 0.578397
2.992548 0.163068 3.518365
3.760840 1.513693 3.150203
0.870380 4.350335 3.063973
0.992775 4.655911 2.992364
2.713205 1.153337 3.577935
0.515885 4.494285 1.361141
1.387455 0.004666 2.424314
2.816619 1.218116 3.957241
0.159044 5.658899 1.869615
3.173996 6.018537 2.439088
3.173677 2.297914 3.264375
3.525752 5.541222 2.860806
1.364814 0.039750 1.155103
3.848385 5.561328 1.456904
3.513585 1.680290 3.045452
2.684138 3.598463 3.717710
2.533814 5.433797 2.852226
3.733171 1.543149 3.040968
2.832047 2.445551 3.428312
1.017003 0.113023 1.874698
1.411100 5.082499 0.988625
1.780785 4.324514 0.410813
3.235793 4.525692 3.443988
3.580293 4.533064 3.316514
0.374685 4.441274 1.590841
1.599980 4.075572 0.412957
3.070441 5.989070 2.755601
1.057300 0.061604 1.977784
0.363267 3.361702 1.251382
2.494538 4.485426 3.559780
3.366390 6.093497 2.380564
2.166427 0.004068 2.645750
0.265001 3.257312 1.490481
2.282701 4.560281 3.522028
4.278844 0.787504 1.918021
1.067774 2.659975 3.137968
2.338585 4.154612 3.653570
1.680625 5.565917 1.749849
1.939435 0.958987 4.098691
2.956836 0.004881 3.163659
2.943082 3.381112 3.681754
3.079696 0.115125 3.472531
2.423772 5.513969 1.209974
3.029692 2.443416 3.394126
1.537958 4.961397 0.809816
1.180774 0.221663 2.869812
2.769842 0.561181 3.929859
3.642292 1.790273 2.524595
3.181289 2.542201 3.408051
4.234462 5.897473 2.365409
2.066649 0.993568 4.056604
0.206947 3.407444 1.605219
2.933522 5.608348 1.571752
0.043481 3.955529 2.295269
0.258134 3.119131 2.323946
1.390795 5.695120 1.886716
3.174699 5.432078 2.932195
3.535212 2.812869 3.412623
2.711829 4.761915 3.428996
4.121578 0.723950 2.200069
0.629610 2.364370 2.317718
3.469549 0.096304 3.828493
1.772462 5.227450 0.958974
1.030229 0.425614 2.697478
4.298282 2.267333 2.214205
1.471003 1.038259 0.855959
4.006968 3.996682 3.280191
1.135714 5.833389 2.099765
1.664765 2.153212 0.928284
3.540803 0.235051 3.993266
2.355615 0.004652 2.954451
0.251115 3.866446 2.433287
3.178790 5.957505 2.452124
2.028486 1.595138 3.393369
1.114184 0.772321 1.205162
1.247939 2.871993 0.643271
2.702429 4.357174 0.340027
4.173323 0.687373 1.804732
3.183769 4.411582 3.501117
1.333774 4.272390 0.544835
0.157695 3.772279 1.950280
2.583499 5.540540 2.656449
1.689917 4.371155 0.444953
3.906261 1.001520 1.333791
1.711379 0.001510 3.037393
1.316909 5.294858 2.569799
1.315576 4.572980 0.672261
4.248034 5.569857 2.737013
3.126937 4.991841 0.713444
1.231824 1.536146 2.854132
0.582067 2.591493 1.354771
1.203014 3.933381 0.531764
1.016822 0.622524 3.409677
3.927928 0.183959 1.521457
2.869431 1.083192 0.526206
3.643777 1.076225 1.004597
2.139715 0.004355 1.420287
2.252596 1.188549 3.749186
3.334506 0.051819 3.415864
3.091357 0.017893 3.242340
2.217698 0.792262 3.974601
1.405419 0.492841 4.072350
3.601137 1.702250 1.297939
0.184567 3.882867 1.787250
1.342597 3.904963 0.474002
1.029444 4.701259 2.990993
2.988538 4.764812 3.389161
1.056128 1.293759 2.880995
4.288012 0.819439 1.834503
0.831131 1.435657 2.100288
4.098635 2.152600 1.573751
3.640103 5.227041 1.211585
1.234587 0.005342 1.902121
4.202245 0.714707 1.685735
1.436336 1.600929 3.470184
3.953157 2.201350 1.237985
3.732886 1.342662 1.242228
3.651232 2.110169 1.140433
1.664955 0.002861 3.140072
4.724894 3.412232 2.502846
4.030103 1.784641 1.643596
1.852062 5.463153 1.267718
4.818729 3.476821 2.187390
3.911306 4.424446 3.188375
0.299352 4.728438 1.561977
4.782022 3.319939 1.649610
0.141537 5.141937 2.367549
1.347524 3.436536 0.480299
4.598563 4.924045 1.915060
4.453268 2.841974 1.215172
3.607566 3.239277 0.506875
4.010931 1.087412 2.561006
0.974092 5.878871 1.854007
0.904196 1.338980 2.357166
3.478388 5.489555 2.369911
4.607229 4.969489 1.886930
0.176392 3.280853 2.040706
2.539185 3.408223 0.297321
4.401137 5.675224 1.550920
0.609926 4.373414 2.789702
4.503005 3.329503 1.079686
1.869685 1.921496 3.014349
3.056686 2.322734 3.313374
1.713145 1.874735 2.936761
2.025791 5.441998 1.156245
2.705411 0.822608 3.903205
2.377719 5.028172 0.656203
2.063351 4.296835 0.354294
4.008538 0.618039 2.639598
3.446087 3.600210 3.606023
3.873094 4.506980 0.754588
1.255278 5.720557 2.367483
3.573257 5.224364 2.782966
0.956179 0.957552 2.723391
2.629632 2.192970 3.265464
3.383248 2.160308 3.044184
3.010926 1.800464 3.145497
1.329872 2.082277 1.212684
3.893373 1.553217 2.487222
3.033357 4.123760 0.337842
3.062660 1.575432 3.871610
1.992399 0.004339 1.918662
4.252660 4.052904 0.860233
3.806892 0.743271 1.108636
2.710445 0.514864 0.091177
3.463392 2.658456 0.630641
2.298522 0.004809 0.970339
2.213759 2.259178 0.668487
0.191868 3.875463 1.729257
0.333769 3.721654 1.281702
1.226585 0.198463 3.156461
4.584094 2.912546 1.390623
2.522913 5.403133 1.026049
1.764393 2.495064 0.627519
4.876444 4.957707 2.318107
3.778373 4.421040 0.656570
3.667095 5.774428 2.370196
3.767118 4.389141 3.285596
0.936559 2.258449 1.246786
3.610004 0.624076 0.862203
4.700813 4.143859 2.353735
4.551546 4.222791 2.637615
2.337612 0.211404 0.115030
2.189824 0.018480 3.325725
2.850962 0.008604 3.273977
4.638626 5.244889 2.293143
4.589390 3.194428 2.689502
0.850955 3.805997 0.721514
2.824991 0.031094 3.354374
0.400165 5.565603 1.493784
4.677567 3.987668 2.763036
0.889035 1.032776 2.416806
0.627082 5.824907 2.367547
3.589177 6.203469 2.641927
0.402411 2.704320 2.299849
1.680750 4.929063 0.725525
1.281980 1.987100 1.425744
0.319223 4.867691 1.525074
1.909693 5.609616 1.709636
1.962569 5.146307 0.812735
3.934691 1.817653 1.455397
0.270830 4.484563 1.879297
2.850872 1.543656 0.675040
3.893239 2.939654 3.271546
4.023239 0.820336 2.877427
0.368137 3.274607 1.267192
4.253027 2.638063 2.945088
0.178350 3.825881 1.768067
4.516556 2.505183 2.025805
2.734975 0.844936 3.947423
3.517680 1.381854 1.002593
3.524581 2.490470 3.261291
3.078370 5.487545 1.287315
2.749187 4.806224 0.523107
3.572601 2.196569 2.993209
1.664931 5.560219 2.188378
1.904193 4.964536 3.245404
2.774768 1.298459 3.717534
3.848191 4.247720 0.630337
4.604179 4.484446 2.221473
2.254388 0.882484 3.935294
4.207101 4.411180 0.968762
3.741393 0.481664 3.999645
1.705776 0.080906 0.768963
1.414642 4.270326 3.422053
3.655208 2.031778 2.531869
3.253347 3.894910 0.362784
3.997782 1.748416 1.491374
4.603623 4.687757 2.828490
4.093127 1.112491 1.327499
3.716168 5.260438 1.333281
4.232162 5.382070 2.783684
3.089435 4.288621 3.563022
2.109265 5.457534 1.158066
4.669263 3.593866 2.628681
0.901404 1.506897 2.326198
2.152264 0.004749 3.054029
3.603406 4.931434 3.062299
1.038550 1.011644 3.419638
4.441960 2.395306 1.916615
1.974262 0.004794 1.026415
3.042466 3.165988 3.637535
3.512167 2.077166 1.120490
4.799900 3.946390 1.837148
2.973485 2.956778 3.606487
4.292271 2.240209 2.080970
0.898637 2.715813 0.896938
0.254311 3.416496 2.625521
0.213283 4.594057 2.119587
1.720562 5.077889 0.830382
2.331691 0.004149 2.048878
3.199699 1.487018 0.799602
3.399125 0.004373 2.028067
1.244846 0.734470 4.045180
2.296483 5.654823 1.989056
3.619827 1.759840 2.603780
3.742639 2.030050 2.400025
0.471536 5.324606 2.367553
2.853197 1.448863 3.413394
3.869473 2.494011 0.894735
1.245166 4.945417 0.965605
0.911291 1.444717 2.377543
0.562053 5.916194 1.949075
0.266160 5.784698 1.635312
4.299783 0.937242 1.926078
0.510760 2.613059 1.474140
1.069172 4.860359 2.896557
3.197432 4.312535 0.400385
0.888885 4.361726 0.848529
2.399575 2.610201 3.525898
2.736408 0.810073 0.436197
0.371586 4.232924 1.429929
3.935491 3.201368 3.317320
2.871377 4.771955 3.404538
3.226849 2.035472 2.883347
2.875286 3.150285 3.660717
1.285847 2.074029 1.269241
1.881902 0.004248 1.516892
1.347478 2.963471 3.410778
2.457908 0.488655 3.592503
3.800638 0.380570 3.856726
2.787958 5.633870 2.285256
3.025095 5.902390 2.636662
1.364796 3.494123 0.470180
3.261525 0.717225 0.605940
2.580245 2.750832 0.432426
2.549814 0.004663 1.162065
2.872913 5.489138 1.212867
0.817982 5.491403 1.442415
3.745849 5.971519 2.716806
3.789627 3.623935 0.520116
2.186445 4.565713 3.512023
4.392177 2.514423 1.420142
2.905414 5.287578 2.997878
1.324125 2.541048 3.220840
3.333271 1.713225 3.378953
3.062469 0.524600 0.508613
3.754462 1.516615 3.376404
2.852392 5.519169 1.267931
1.819580 4.323256 0.401949
0.899411 0.505655 1.947483
2.039506 3.584848 3.695159
1.207343 3.968191 3.405033
3.551548 0.045649 3.020089
0.223087 5.800497 1.837410
1.243721 0.007544 2.415241
2.490565 2.333432 0.604377
1.142907 0.777227 3.988419
1.858761 0.004971 0.968291
3.643245 3.867916 3.492871
1.228617 4.654286 3.158607
3.885592 5.815166 2.597671
3.335196 1.518659 0.906146
3.849058 4.605870 3.136496
3.978016 1.127408 3.126983
3.558944 1.724081 1.259639
1.693974 5.579359 1.848171
3.352700 6.244516 2.577456
3.454704 5.779200 2.207034
3.546552 1.716471 2.762327
1.996800 0.050910 0.659004
0.099025 4.976145 2.066081
2.046655 5.640021 1.857123
4.613242 4.178114 2.547226
2.149561 3.585069 3.706503
3.741407 6.050744 2.699017
1.117087 2.020061 1.603763
4.551006 5.542285 1.656965
2.354717 3.331286 0.305740
1.907773 5.388077 2.809982
3.569743 0.046741 2.972933
1.268951 2.141725 1.132279
0.238526 3.012816 2.006574
0.975422 1.021065 3.027207
1.024124 5.366842 2.367556
1.824620 5.302920 2.895390
1.239469 2.183745 1.087283
4.048203 2.791448 0.841951
4.529701 5.740952 2.304837
4.523104 2.810068 2.570107
2.970563 5.521411 1.313946
1.983748 5.609147 1.630419
1.791589 2.360157 0.696001
1.038969 5.151093 1.399239
2.732424 0.502906 3.612532
4.903405 4.893680 2.327078
3.653573 1.691334 2.611459
3.820330 0.271754 3.131883
0.999256 4.247630 3.202058
4.694345 3.994789 2.482204
2.056321 0.005042 0.856963
2.713919 0.311336 3.542508
2.456742 3.969674 3.692821
0.414240 5.696352 1.523540
0.460464 3.798874 2.837077
4.222996 0.877262 1.523955
1.210675 0.006065 2.095548
0.927874 1.790638 1.885128
0.336902 4.452308 1.649192
4.622582 3.285996 1.266727
1.012986 2.064432 2.152694
1.025903 0.517490 3.157698
3.998333 0.676001 1.467601
1.195156 2.564624 0.801316
4.008273 1.076833 2.668043
3.818764 0.269969 3.136177
4.294768 5.236626 2.803754
0.944428 0.424463 2.344764
4.049772 4.477571 0.866019
2.139141 0.282057 3.553687
0.860277 4.875869 2.664068
3.978777 0.582276 3.051477
0.396083 3.659587 2.756501
3.207021 4.644103 3.398874
4.467214 5.400085 1.544083
4.515644 2.511656 2.085109
1.439531 1.786586 2.706828
1.617353 1.377087 4.083520
0.925665 4.684460 1.007566
3.668503 6.080917 2.708220
4.423257 2.602614 2.773649
3.142951 4.630264 0.499881
0.412525 4.512083 2.370600
0.552658 5.317559 2.367553
3.698130 5.640908 2.824786
1.707522 5.537441 1.568867
0.162776 3.799245 1.893016
1.994479 0.003972 1.972435
1.926076 0.003228 2.505828
3.744688 1.360021 3.927044
0.226007 5.805547 1.854080
4.088865 4.940303 2.667459
0.188635 4.910077 1.603723
1.929513 4.064806 0.344984
0.690805 5.757203 2.367553
3.590153 1.058205 4.089397
3.139163 3.777328 3.654934
2.267745 5.654532 1.977542
3.499482 4.392717 0.516593
0.838989 4.637211 1.055798
2.985231 2.905946 3.591546
3.588197 4.646408 0.667485
4.512977 3.152723 1.142933
1.110962 2.790437 3.240834
2.868211 2.640556 3.513790
0.898826 0.516325 2.058897
0.722734 2.688088 2.950307
1.831656 1.967835 2.951327
4.357262 3.950036 3.017066
3.786831 3.039715 3.365031
2.308082 0.771974 3.624984
2.880959 5.622546 1.614830
4.505126 4.597063 2.395733
3.420567 5.592893 2.731892
3.585495 2.706125 3.347177
0.080137 3.263939 2.333483
3.813247 3.766686 0.527649
2.059293 1.377033 3.964259
2.251628 4.942699 3.320426
1.104544 1.976803 1.568043
1.824993 1.399176 4.059008
1.410133 0.004611 2.425347
3.448358 0.516050 4.108569
3.237379 0.001431 2.370750
0.291820 3.497500 2.576440
0.405583 2.665401 1.709305
2.347673 1.156300 0.504153
3.423355 0.004858 1.562820
1.509517 1.808583 1.211195
1.455208 4.459020 0.553915
4.517885 4.845739 2.573170
2.803802 3.867734 3.692041
3.618354 3.772301 0.456296
4.568688 5.623292 2.025886
1.454079 0.111803 3.550716
1.180261 1.366819 3.738979
1.446915 0.004651 2.600083
1.747856 4.968925 3.192027
4.697165 4.259372 1.712184
1.794069 2.982386 3.565261
4.449038 2.720299 1.301066
4.569272 3.587967 2.793458
0.329422 4.383404 2.229480
1.131921 5.316089 1.429817
0.895006 0.586773 2.077108
1.888533 3.348150 0.359099
4.143059 2.328731 2.658804
4.093406 0.614738 2.037267
3.052034 5.601408 2.561368
2.754786 2.487851 0.534253
3.311908 1.654334 0.958278
0.272085 3.713938 1.402989
3.897548 1.134888 3.834924
3.960167 3.819624 3.328271
0.164480 4.715885 2.077506
1.747698 2.599005 3.418853
1.219932 1.397276 3.857813
4.535966 2.627795 2.325610
4.582983 4.175707 2.609405
0.893898 3.765500 3.249954
3.709650 4.799197 0.826922
0.111666 5.269747 1.688761
2.765948 4.569617 0.410033
2.722040 4.130539 0.306984
3.076522 5.523602 1.369802
3.156449 3.781991 3.650771
1.000787 1.142405 2.960703
2.646019 0.875972 0.437829
4.061282 0.589090 1.712410
0.490933 3.577119 1.043596
4.439754 4.872459 2.747581
4.713790 3.202727 2.439561
0.313370 3.943866 2.572987
1.127316 5.043658 1.163330
4.697361 5.367765 2.650478
1.241477 5.785127 1.984454
2.631256 4.976314 0.620912
0.731532 3.655829 0.801176
0.399029 4.722768 1.514453
3.041527 1.650012 3.352950
1.341062 5.731890 2.297105
3.052009 3.623230 0.334426
2.315829 0.401604 3.568308
0.830901 1.457290 2.190538
0.974860 0.773274 3.318101
3.007945 3.030471 3.617561
3.306221 3.721170 3.617975
2.506189 4.587365 3.519396
2.618174 3.040175 0.356603
0.939738 3.501023 3.286962
4.827351 3.383327 2.021171
3.122975 0.004794 1.361136
4.324759 2.637134 1.186613
2.295170 1.620302 0.673533
0.403788 2.698902 2.295511
0.192747 3.187445 2.019109
3.581785 2.499341 0.750351
3.921030 1.855626 1.476789
0.248194 4.171306 2.123579
0.260407 3.126873 1.590793
4.010301 5.920084 1.962676
3.629345 1.859956 2.466583
2.678928 0.997877 3.730098
1.498764 0.026637 3.089602
3.737516 0.171882 2.973908
0.637886 3.592155 0.884421
2.135458 0.003905 2.141416
3.426711 5.020863 0.847283
3.815209 5.901774 2.179603
2.572296 5.655323 1.925371
4.782100 4.027698 2.091243
1.322536 0.596744 4.061472
4.545413 4.982046 2.383314
3.965045 0.110332 1.998887
4.302634 4.970430 1.472032
1.159055 0.438421 1.140703
4.781089 3.157303 1.814447
2.693347 0.004568 2.389398
4.224481 4.427043 0.994834
3.752420 0.041766 1.374698
1.704367 1.737237 3.053255
1.393116 1.431491 4.004460
1.048967 5.122185 2.562326
4.671920 3.618329 1.302408
4.018559 0.864652 3.012158
4.387940 3.770467 2.998811
1.135174 0.287334 2.926414
3.192633 2.322263 0.702676
0.356173 3.433272 2.781748
0.408480 5.422627 1.475479
1.322490 0.116633 3.311760
1.250105 1.401100 3.908016
4.390576 2.970422 2.862858
1.586088 4.621565 3.348633
3.826729 2.103862 1.311565
2.652660 2.444495 0.547958
1.436125 0.004517 2.390249
3.778750 3.381341 3.431315
2.738022 0.004904 0.911024
2.758554 2.805516 0.424411
1.070569 0.591489 3.651711
2.501317 4.756831 3.440432
0.991458 2.698288 0.844729
0.600386 2.372857 1.682678
2.715649 5.280612 0.889064
1.800240 1.813519 0.959820
2.503856 3.382847 3.745248
1.676380 5.491908 2.469706
2.164362 1.364102 3.738580
4.380579 5.880456 2.256755
4.452327 5.552197 2.433441
2.205727 3.225422 3.784124
3.077856 3.617858 3.674499
1.233757 0.289418 3.800920
3.987309 4.344245 0.756714
4.123006 5.921007 2.172121
2.340960 4.940389 0.596956
2.866644 5.405307 1.071611
3.371815 0.531440 4.124838
0.790737 3.874395 3.160364
2.782360 2.366390 3.389866
0.150440 3.675576 1.990817
1.438604 1.325970 4.060744
2.252683 5.397053 2.887477
0.730260 1.050915 2.174167
1.455949 2.696867 3.359968
4.592029 5.036937 2.512893
1.337763 0.308857 3.982201
0.350546 5.076516 2.367553
0.669842 3.272299 3.035446
2.476657 5.261521 3.071769
2.899576 0.004229 2.992099
1.449540 0.004479 2.394467
4.581298 4.309561 2.522632
3.161355 0.121166 3.911823
0.108525 4.922103 2.073675
2.334281 0.004843 0.940921
0.091539 5.036715 2.019961
3.286855 6.053562 2.796412
3.531061 5.815405 2.321345
2.930046 2.196455 0.719096
0.585789 4.363118 1.158287
3.504670 6.057036 2.748945
2.158285 0.340440 3.621835
2.270069 3.361314 3.799063
4.838194 4.025675 2.498673
1.083104 1.096020 1.304924
0.389153 3.241228 1.243087
1.652180 4.980253 3.148144
1.483377 4.243548 3.457512
0.489250 3.213931 1.104747
0.390493 3.676304 1.184129
4.484503 4.683425 1.581150
0.167024 3.748829 2.134632
4.295110 0.874691 1.946456
2.203754 2.013206 3.111182
3.835096 5.877810 2.366945
4.019578 3.668880 0.630110
4.440029 5.045338 2.737414
2.568763 3.314574 3.720938
2.522328 3.863869 0.291129
3.958654 1.175494 3.292063
3.562447 4.494641 3.341626
3.892364 1.358756 2.739871
0.316526 3.274197 1.365028
0.633892 3.417929 0.898622
1.904506 4.221494 3.589378
3.219494 0.005123 1.116439
1.682806 0.003645 3.324434
2.637783 2.022898 0.781450
4.433498 5.859779 2.045541
3.985054 0.503453 2.613453
0.174011 3.879484 1.899008
0.983383 2.244243 1.215122
4.549015 4.500861 2.881462
4.702493 2.953358 1.687887
0.925098 5.704097 2.367553
3.441712 5.772534 2.269060
0.447405 4.036963 1.190303
2.347304 0.974266 3.542753
2.066200 1.483044 3.673236
3.563120 5.828558 2.196669
2.252795 0.118533 0.526738
2.661341 3.304794 3.707731
3.659151 1.311101 4.021421
4.511056 2.565237 2.547705
3.175642 0.003795 2.194222
0.775341 1.364937 1.886500
4.043836 0.748145 2.390704
0.692879 4.367257 2.888999
3.411842 1.939940 1.269535
3.267385 1.933106 1.109370
1.657063 3.047195 0.458296
0.605893 5.921757 2.282934
2.425683 2.499169 0.530751
1.739388 0.009828 3.387180
3.832755 0.982744 1.219237
2.977871 5.479175 2.710883
0.761957 3.998264 0.826339
4.758116 3.155443 1.679905
1.058545 1.083370 3.676252
1.134523 0.427717 3.466969
0.871258 1.675876 1.838349
1.008712 0.133441 2.184925
3.590169 1.678837 2.740046
3.356882 1.476674 4.044982
2.216033 0.003880 2.272530
3.982271 4.497823 0.824758
0.868557 3.297721 0.722700
0.637329 5.766521 2.367553
0.172300 3.800872 1.788040
2.324273 5.574118 2.563336
0.216202 5.365680 1.558718
1.958569 3.097807 3.631401
3.143711 4.890326 0.647097
1.066439 2.032691 1.846318
1.803933 2.243510 3.214245
1.944016 1.279744 4.059467
0.378602 3.556727 2.740423
4.819854 3.314711 1.974370
2.427974 2.315227 0.617243
0.123535 5.554432 2.028237
4.264991 2.665292 2.942043
4.392464 4.861306 2.382433
4.000213 0.727654 3.274037
2.751168 5.628814 1.588753
4.059199 2.899405 0.803391
3.873869 1.067725 3.924490
0.223311 5.744653 1.661170
1.888296 0.002796 2.529238
0.825364 3.566143 3.214130
2.738946 4.203455 3.636225
3.666206 2.382880 0.861509
0.912806 5.052454 2.484005
3.409689 6.010728 2.780016
1.981490 3.951980 3.657697
3.668174 1.730842 2.535384
2.056953 0.004313 1.448992
1.640568 4.754337 0.624556
4.191479 4.870022 1.330142
0.997929 3.026232 3.234886
3.086629 2.080432 3.035025
2.486127 3.667337 3.723778
1.036957 0.949475 3.546082
2.215711 2.858563 3.603072
2.710282 5.628669 1.574801
4.785641 4.044031 1.948324
2.100559 3.743934 3.696049
3.119647 0.006351 0.865949
1.200522 4.835201 3.018267
2.514453 1.244675 0.523379
2.934909 4.604208 3.476804
0.946934 0.871114 2.610321
0.910150 0.597848 2.242313
3.123059 2.092620 0.904999
0.195513 3.738052 2.289328
0.726685 0.922616 2.167971
3.505267 4.965656 0.839372
1.186237 5.044308 2.810173
1.891744 0.004058 1.670097
3.727001 5.606941 1.483625
2.751556 1.879367 0.802095
1.623300 0.001824 2.426961
3.895432 0.207753 2.594167
1.359953 0.706802 4.083744
2.111642 5.148397 0.781284
0.700231 0.891148 2.062380
3.016607 3.930702 0.325214
3.896616 1.929066 1.533784
0.337138 4.742524 2.367553
3.255983 4.396944 3.487413
4.154044 0.690529 2.081725
1.137075 1.964568 1.496739
0.656410 4.887672 2.368652
2.910230 5.509583 2.666664
4.548016 5.532563 2.680134
0.869180 3.182243 3.185726
2.376513 0.095997 0.394240
0.960980 0.734735 2.802194
3.664210 2.278578 0.938147
3.678242 0.311519 3.959412
3.046464 5.627402 1.820056
0.535458 2.476300 1.642715
4.692973 2.908578 1.716924
4.865835 4.523483 2.809355
2.906355 5.177691 3.111897
0.943147 5.217461 1.421490
2.173000 3.086660 3.658719
3.789678 1.506984 2.558035
0.427586 2.534569 2.495537
1.258959 1.575602 1.281249
2.840156 2.114836 3.150392
1.455757 4.450820 0.550502
1.697037 4.124655 0.396130
0.775509 1.062859 2.278029
4.608476 4.621310 2.453096
3.459874 1.717390 2.922557
4.599842 5.008271 1.751902
4.024173 0.279153 1.795955
2.903039 0.548890 4.032193
2.516092 2.989019 3.661058
1.964316 1.950065 3.049899
3.416854 1.803645 1.150116
2.523769 0.745513 3.594245
0.312811 3.273420 2.583292
4.311079 2.250335 1.979515
3.216982 3.603635 3.644768
3.374942 4.821013 0.678835
1.285460 5.760597 1.930170
3.088686 0.191310 0.600018
0.973958 0.768921 3.266949
2.785226 0.004174 2.899746
0.309930 5.194621 2.367553
0.168556 4.081759 2.515363
1.501361 0.004095 2.349517
2.340729 5.033810 0.662140
4.047676 0.531708 1.666493
2.183756 0.041743 0.617258
3.119900 0.004654 1.868411
0.629544 3.805016 3.019845
3.386224 3.117879 0.463760
1.706591 5.562407 2.241693
2.684695 1.983251 3.148057
3.126940 0.611500 4.110836
0.772059 0.746683 1.631897
1.886704 5.327861 1.036235
1.308529 3.498127 0.487656
3.725301 5.875369 1.822435
2.603963 0.630024 0.087862
4.214210 2.667722 1.041774
1.780715 4.400580 3.504851
1.343208 1.515408 1.216810
2.337493 5.486784 1.165764
4.851104 5.281753 2.518500
3.729806 0.005001 1.981907
3.501827 1.683274 1.160524
0.529212 4.107718 1.104374
4.129036 3.416841 0.718308
2.592061 3.456386 3.724790
0.089646 5.182709 1.829708
4.549944 5.355730 2.459473
1.095374 0.079329 2.420877
2.990241 4.679683 3.432661
2.765152 0.899586 3.978430
2.020250 0.003863 2.745513
0.924480 1.482432 2.379595
2.054029 4.400943 0.376944
2.363115 0.004098 2.208430
3.935181 2.042649 1.846072
4.157641 3.858376 3.198202
2.647264 0.022266 0.628725
1.153553 5.826313 2.304402
2.374212 5.257013 0.855166
0.863311 3.057384 0.786379
2.246294 2.526117 3.478949
3.757415 3.833229 3.442014
3.992577 5.568688 2.792113
4.190811 2.163804 1.840824
3.075716 3.076479 3.614375
2.631009 0.531431 0.045803
1.078381 0.776754 1.270782
2.914231 4.540140 3.506895
1.806340 2.087739 0.949816
3.432243 3.128189 3.531679
4.390154 2.414520 1.579152
1.930427 0.004825 0.999001
2.744064 2.150170 3.210245
3.427656 5.728586 2.633878
3.305019 5.298701 1.086354
0.851321 3.536893 0.708917
0.795866 1.482775 1.786027
3.860299 0.477373 3.822931
0.201172 3.227510 2.436414
2.198727 1.523241 0.650074
3.241128 0.068378 0.765384
0.249943 3.901751 2.427248
0.250621 5.278974 1.534089
3.383939 0.003120 2.122271
3.262673 0.004753 1.732150
3.839214 1.431748 2.877807
2.814690 5.651509 1.992648
3.694757 4.331517 3.344064
0.393884 5.094367 1.472784
0.951232 0.917587 2.678639
0.855680 2.206667 1.470883
4.544588 4.845150 1.661121
0.266675 3.376808 2.672906
3.921881 4.385045 3.199011
2.804765 3.408649 0.312275
1.987769 5.603943 1.598796
3.419739 1.939338 1.279036
1.373142 5.619623 1.581344
1.130974 1.825317 1.371866
2.248591 4.782098 3.415451
1.272292 0.007954 1.515319
4.319979 5.712485 2.367569
0.738746 4.549724 2.821777
2.569922 0.004604 2.795052
3.947845 4.632158 0.876260
3.750275 2.382088 0.903779
3.615288 0.004591 2.327654
3.841441 0.762320 1.163284
1.666532 0.015312 3.409727
1.376171 0.702981 4.088317
2.109493 2.265843 3.303535
2.496194 0.004238 1.838200
3.989815 2.928564 3.205761
0.568896 4.703355 1.437884
1.994275 0.191582 3.853696
3.072092 5.480809 1.269924
4.584339 5.515904 1.774010
0.657135 4.080139 3.004784
0.393647 5.454661 1.483011
3.724247 4.177045 3.379750
4.111678 3.507764 3.255670
2.737495 0.004672 1.351205
2.186773 0.533313 3.944322
0.469556 2.558776 1.692878
4.437731 2.657773 2.741693
1.779895 0.004621 1.270050
2.854669 3.724226 0.308512
0.450068 4.496549 1.472620
0.081940 5.256792 2.131307
1.596213 3.892191 3.571067
1.606942 5.496821 1.529681
2.654893 2.906706 0.390328
1.708303 2.539436 3.378836
0.268132 4.237242 1.807029
1.470375 2.709202 0.625545
3.766336 1.530273 2.601820
4.620383 5.356766 1.980349
0.711804 5.919725 2.349043
3.459959 5.536913 2.700869
1.752429 2.089614 2.994457
2.867120 5.057264 0.705644
3.753669 5.881680 1.811261
1.942986 5.588244 2.363332
0.760817 2.517600 2.766121
3.483717 5.200865 2.866920
0.234616 3.440284 1.504799
2.705321 5.651082 1.808568
1.958143 3.028434 3.614827
2.485770 3.310261 0.306005
1.219686 3.197659 3.402542
0.836926 5.904795 1.839400
3.037371 5.107836 0.782636
2.105998 0.004712 2.951772
3.737776 2.339333 0.927802
0.252885 4.140903 1.718840
2.309636 5.175090 0.779620
3.781707 0.008713 2.254898
4.915220 5.026904 2.293877
2.640443 0.226619 0.101860
0.377203 5.490208 2.367553
1.015042 0.133652 1.774767
3.725424 0.014401 2.544784
1.490267 1.276857 4.085840
2.295299 5.398952 2.890965
2.907202 1.471510 3.812121
1.317969 0.948944 0.980740
1.149812 0.390437 1.170630
2.464278 1.046176 0.468186
0.895806 0.554451 2.059515
2.100876 0.853546 0.473820
1.489306 4.523807 3.356987
3.983437 5.473357 1.433169
3.557858 4.230255 3.438494
4.576830 2.762661 2.403384
4.106831 5.763925 2.722589
3.603193 1.538818 3.879127
1.017057 1.196562 2.922922
0.738062 5.780886 1.543818
2.185273 2.531811 0.536203
4.630550 5.242385 2.233279
1.837724 0.828834 0.562638
2.821937 5.650941 1.951380
1.825383 3.734588 3.653978
1.877401 2.100083 3.057760
4.376499 4.648407 2.885996
0.263567 3.434473 2.546165
4.011539 2.536079 2.994608
0.967807 2.219739 1.273569
3.186439 0.004717 1.640893
1.650579 1.737525 1.020453
0.894042 2.186111 2.465005
2.151349 0.003981 2.063405
0.096371 5.394477 1.954493
2.234232 0.812112 3.958895
3.876076 5.153251 2.810419
1.452783 4.954582 0.846633
4.319013 3.517727 3.100274
2.815606 5.409673 1.066712
3.950955 1.941171 2.018641
2.770006 2.355270 0.598403
0.988546 3.498280 0.623163
3.393036 1.707746 3.202271
2.213139 4.478657 3.548586
3.680758 0.213697 3.710005
1.107733 0.230564 2.677035
2.897158 1.780837 0.795742
0.867260 2.426618 1.123991
3.833947 1.314849 3.606678
1.110633 1.352623 1.253147
3.121773 1.157655 0.637928
4.113450 1.244825 1.382344
3.460835 2.859632 0.556784
3.957389 2.268464 1.143264
2.383417 0.004389 1.546524
2.177906 3.936346 0.307838
2.047566 3.603014 0.319193
1.488040 3.127511 0.485515
2.575253 2.850885 0.403165
1.420708 5.136036 1.040638
1.196358 4.717332 0.821704
3.640283 5.203775 1.177796
0.841646 2.505983 1.079510
3.855901 0.451589 3.729961
1.325926 2.283559 0.932062
3.382238 6.014798 2.784930
3.409243 0.003911 2.666586
4.711434 4.063996 2.621741
4.975099 4.662879 2.364851
1.118491 0.144839 2.607747
0.742569 2.611447 1.105240
0.148499 4.763766 2.112704
1.444633 1.557744 3.920336
3.162856 4.584728 0.483624
1.777260 4.120219 3.584584
3.517983 3.912555 0.429425
3.870700 0.481722 3.488689
4.051490 2.306252 1.190771
0.977357 0.215819 1.781115
0.919614 0.520713 1.734182
3.732885 5.457801 2.873323
2.227210 3.380868 3.766069
4.087611 5.549304 2.776173
0.912138 0.483062 2.193300
3.657284 5.259387 2.655500
2.421849 5.479919 1.147097
0.111617 5.505050 2.212420
0.862675 3.446508 3.232204
4.839674 3.578299 2.028853
0.531987 4.083380 2.910823
3.525405 0.309654 4.039316
2.218854 1.044773 0.492622
2.893797 4.622749 3.474810
0.752743 5.436957 1.434515
3.444319 0.106785 0.875691
3.133460 1.626357 3.475643
2.893744 0.004596 1.988326
3.396631 6.097471 2.373187
4.603665 4.831264 2.640779
2.935555 5.553894 1.380872
3.939566 1.229711 3.285449
3.057642 0.596834 0.503460
3.080078 5.833232 2.891324
3.636215 1.017323 4.078564
5.001074 4.868470 2.701538
4.738765 3.112342 1.642744
3.456466 1.564110 1.036748
0.527171 4.652926 2.408113
0.221255 3.211425 2.282298
3.956913 2.242008 2.751730
3.280530 3.884243 0.368393
1.842642 1.655724 0.842992
4.079990 2.176746 1.458051
1.394430 3.117176 0.516974
0.969415 0.983790 3.003123
1.706764 0.911802 4.143930
3.575263 1.968736 1.474786
2.495522 2.576643 0.495809
3.397843 5.950000 2.406852
3.446098 4.482298 0.530012
3.351966 4.333753 3.480453
1.310157 1.591665 3.261867
1.847174 5.320117 2.882001
3.697888 4.886289 3.044107
3.887670 0.070039 2.367733
1.054708 0.543336 1.304944
2.626006 0.127285 0.495223
3.468775 0.015416 1.068244
3.218568 5.626043 2.254172
1.770567 4.981849 0.733263
4.113028 4.125242 0.765326
1.471679 0.977927 0.836228
2.838123 4.489543 3.537316
3.049316 1.482212 0.720627
0.740339 5.376374 1.429013
0.338589 4.388128 1.681418
2.575795 0.414169 3.578183
1.712353 4.865428 0.669157
3.264522 4.737203 0.589496
2.279715 0.155057 0.420090
1.278371 3.626677 0.490340
2.095172 2.508874 0.555909
3.840877 1.982839 1.517056
4.066129 1.619548 2.250555
2.602881 5.458595 1.113213
4.492515 2.846743 2.651729
2.225399 0.003965 2.164128
4.509302 5.758817 1.780106
1.674793 2.333460 0.752908
4.329594 4.792233 1.432299
1.536148 1.779176 1.159350
1.958687 5.535926 2.544690
0.209180 4.020818 2.593249
4.676150 4.971836 2.357776
4.740014 3.490646 2.474452
2.583625 3.020228 0.360702
1.147233 2.258021 1.054561
0.782770 0.875807 2.259109
1.038853 4.143601 3.262277
3.180776 0.005396 0.976014
3.325481 3.331756 0.408522
3.402126 5.208843 2.906945
1.029369 0.187560 2.414894
3.924567 0.902012 3.871921
1.516025 0.585411 4.113647
2.283548 0.004684 2.893455
1.902238 0.322354 4.037821
4.958921 4.869256 2.320763
3.623489 4.030086 0.477637
3.679347 1.049633 4.061457
0.523143 3.181645 1.071791
1.969040 4.833220 3.350129
3.095406 0.114839 0.643243
3.694574 5.156637 1.159032
3.646931 2.451171 3.176817
2.093333 5.634510 1.717502
0.584472 4.184819 2.873584
4.850519 4.455099 2.452157
2.989278 5.768225 2.605449
4.582738 4.849053 1.955985
4.765565 4.021949 2.216804
3.690209 1.557749 3.410031
2.369920 2.169738 0.699573
0.109294 4.990211 1.776615
4.077554 5.459436 1.436968
3.433631 5.124107 0.948204
2.405336 1.499044 3.384449
1.646382 0.063607 3.518574
3.353937 1.849763 2.875392
1.249724 4.790143 3.084043
2.887085 0.087717 0.586525
4.106221 4.405781 3.058594
2.809689 2.975259 0.381621
1.626003 1.689900 3.411125
2.645287 0.004860 0.942768
3.978160 3.738680 0.606887
3.567948 3.214659 0.498825
0.936396 2.274393 2.694577
4.624027 5.337075 2.089654
0.946949 3.409531 3.281388
2.515769 0.004548 1.645449
3.001662 0.004858 1.095398
1.477340 4.141258 3.483072
2.060560 3.469316 0.322395
2.632871 4.811364 0.517526
0.736613 3.414763 0.806108
4.555140 5.669486 2.165127
1.114630 1.698038 2.444449
2.161532 0.004535 2.758954
2.120660 1.519346 3.371050
2.069031 3.694960 0.314067
2.903596 3.685808 3.697338
1.107463 0.230378 2.676166
3.703239 1.570617 2.985421
1.416729 0.131137 3.714843
1.634886 1.894641 2.847341
1.294629 5.573832 1.530657
3.155651 1.567860 3.952808
2.842967 2.348267 0.610024
3.005115 0.018623 0.731467
1.032169 5.533076 1.467490
2.062791 0.005370 3.186552
2.256811 0.004075 2.000981
1.128887 5.829804 1.823876
0.099517 5.401345 1.898928
2.898134 0.755439 0.459632
3.791209 2.010772 2.266006
3.466715 1.299417 4.086666
1.782781 3.504560 3.645408
3.410288 5.723495 2.811245
4.263510 5.687506 2.378713
1.597275 0.952180 0.729640
3.581089 3.941316 3.503344
2.200860 2.112598 0.767558
0.436209 2.648466 2.526492
2.981887 5.618149 1.660375
2.285069 1.034051 3.844495
4.093411 0.711202 2.199769
3.018739 2.778159 0.466698
4.646772 4.123208 2.511867
2.138605 1.186331 3.990217
3.554610 0.004506 2.230932
3.726174 2.035366 2.463603
1.190903 5.720417 1.576787
1.685944 1.723500 3.073306
2.222455 4.550051 0.404768
2.093687 0.004644 2.874463
3.931171 0.359084 1.378808
4.389747 5.559356 1.523793
1.461531 5.640118 1.778130
1.893710 3.950848 0.343995
0.207084 3.393263 2.351907
0.853257 4.083763 3.155698
3.482708 2.570366 0.674186
1.156791 1.451286 2.951058
3.791196 4.997059 2.883771
2.870240 3.644056 3.702512
1.755708 5.577834 1.702355
1.321367 1.847069 2.427253
1.045368 4.642671 0.879054
4.278893 3.241343 0.860011
1.430374 2.356511 3.158029
4.648823 4.349741 1.656058
1.327106 5.238159 2.676634
0.238789 3.714992 1.482296
4.090561 2.941992 0.806938
1.395388 2.015570 1.436796
2.997116 0.004035 2.396789
3.777699 1.382352 1.263910
4.460143 4.472366 2.745922
1.412097 1.916185 1.445631
3.881847 1.602060 2.476626
1.106822 5.034400 2.749835
1.818146 2.034344 1.009868
0.862745 2.124172 1.854306
1.584814 4.659574 0.595744
1.089573 0.366854 3.005497
0.900657 5.266233 2.367554
4.046674 1.780691 2.025347
1.479496 0.005036 1.290547
1.166860 3.420960 3.501566
0.095285 5.409488 2.111281
1.448514 2.249376 3.073943
3.998713 1.569126 2.402315
2.613361 5.489554 1.166973
3.447810 0.691477 4.125810
2.853928 5.619344 1.582160
2.954071 1.752782 3.193797
3.891175 5.827249 2.367590
4.836597 3.464978 1.952979
2.024636 0.004666 2.957412
3.945515 0.902146 3.637308
2.945567 0.004660 1.529849
1.076676 0.222736 1.411201
2.468982 4.556099 3.532181
4.736954 3.853614 1.493952
2.189568 5.001751 0.652659
3.169184 2.691460 0.526756
2.015672 0.003807 2.710021
1.808414 5.134980 3.072388
3.514782 5.575471 1.507658
3.243430 5.644971 2.022420
2.712682 3.976512 3.683368
4.340150 3.841640 0.894787
3.052206 3.254423 0.360483
3.519012 0.263241 4.020080
0.652805 5.922816 2.171360
0.611406 3.495875 0.914486
3.519101 0.636557 4.106200
0.219351 3.445169 1.549216
1.587183 2.124686 0.997824
3.563757 2.393842 3.181800
3.613262 4.026616 3.472684
3.757756 2.815169 3.317559
0.985887 2.432494 2.915922
0.995470 1.613833 2.388077
1.396106 1.413720 1.091777
1.308527 1.695994 2.568032
0.082588 5.239020 2.010424
0.746887 4.720828 2.685773
1.231008 0.217139 1.131620
3.919424 1.980998 2.039352
0.175986 4.962611 1.605659
1.526208 1.964668 2.633907
0.727348 0.983672 1.572386
4.175086 0.724372 1.602270
0.692771 5.922530 2.285710
2.836458 0.946291 4.026603
3.485680 0.366838 4.068784
0.424309 5.579484 2.367553
4.409299 4.455693 1.236627
1.059733 1.922523 1.576186
1.660056 5.028727 0.811576
0.670223 3.713049 0.858679
3.424160 5.401533 2.917212
3.650564 0.163993 1.037472
1.349422 5.726531 2.119627
2.195563 0.596770 0.271487
4.318209 5.810570 2.367541
4.498206 2.690379 2.508811
2.178972 0.375819 3.675116
0.835541 2.205603 2.405442
4.932094 4.933746 2.311704
2.448296 4.282955 0.319890
0.507113 2.449207 1.968046
4.192639 5.698546 1.511477
3.934496 3.675990 3.356311
4.650627 3.339779 1.301703
2.574819 4.826365 0.523553
1.068918 2.950547 0.696111
0.397194 2.762976 2.369482
2.851578 0.004649 3.167925
4.604468 5.472744 2.016816
0.165623 3.782457 1.829416
0.781401 5.158590 1.421529
4.892650 5.151930 2.659447
1.681777 0.064466 3.720944
2.734003 0.864691 3.946429
2.864254 3.680886 0.309636
2.154938 4.505222 0.395844
1.952480 5.058077 3.185833
0.867033 4.001145 3.194519
2.715793 1.674326 0.700167
1.445323 3.516133 3.543980
3.292529 5.656023 2.367154
1.129905 1.226207 3.878087
0.222064 3.316096 2.602000
2.952158 3.045280 0.380701
2.657534 2.098576 0.736943
3.987889 0.602360 2.965418
3.762540 2.493914 3.138339
3.365455 5.840999 2.438896
0.674395 2.296801 2.264754
4.699065 3.550635 1.358445
3.251706 0.001499 2.196353
0.921448 3.274744 0.692402
4.478898 2.475540 1.743530
1.772137 0.242681 0.637797
3.707950 0.160635 3.334960
3.934055 0.664446 1.318776
4.718632 3.349683 1.441954
0.482200 3.157241 2.792348
3.136868 4.061209 0.349000
1.629057 0.555775 0.655567
0.684686 0.935549 1.980243
1.675467 0.696442 4.141969
3.941569 5.572789 1.457465
1.920967 5.081585 0.767420
1.037179 3.152218 0.653979
4.555874 4.746398 1.976500
3.701335 5.004671 2.942007
1.633441 0.357444 4.088943
2.237280 5.028000 3.259850
1.041148 3.204853 3.306132
1.805593 4.972150 3.209129
3.524621 0.114359 3.804670
4.802634 3.269947 1.806666
1.499681 5.137604 2.930725
4.091758 3.628626 0.674323
1.783764 0.076735 3.676473
1.989900 3.623181 3.688886
1.529974 1.843644 2.777303
3.605355 1.565306 3.526410
3.331768 4.855581 3.239795
0.321894 2.785339 1.939426
0.414862 4.107844 1.272848
4.591735 4.489614 2.271604
2.451003 2.334480 3.385300
3.057236 5.626801 2.094040
1.450434 0.004595 1.786267
0.528174 5.232423 1.436498
3.065694 1.705210 0.828573
1.449610 1.681158 2.903887
3.177745 6.010877 2.829705
4.321017 5.730295 1.542311
4.218520 3.797361 0.779007
0.101906 4.958349 2.076655
3.576355 1.583177 3.557306
0.587416 4.096042 2.938220
1.515566 1.705545 1.131883
2.552775 5.339874 0.944953
2.939545 3.705649 3.691969
1.911278 5.531008 2.532138
0.750837 3.949791 3.114553
3.091691 5.603395 2.274286
3.956966 4.048422 0.638059
2.096333 2.025708 0.855755
2.060221 3.459927 0.322780
3.027263 0.005199 0.935032
1.907015 0.003690 2.163488
1.916792 0.014311 3.227608
1.081721 0.270561 2.655238
2.307923 1.372402 3.423028
4.416750 2.697305 2.702872
0.277120 3.047860 2.316804
3.697531 1.509463 1.284549
3.286698 0.000502 2.418288
4.564489 5.635713 2.008739
3.171503 0.018305 3.259928
1.691722 1.713999 3.368574
1.388040 1.572384 3.521337
3.885526 4.116088 3.313841
2.964773 2.863108 0.431036
2.183840 0.270493 0.452609
1.012555 2.102028 1.519093
3.287828 0.064063 3.540702
2.679001 5.566328 2.583215
3.800617 2.254369 1.035089
0.892365 1.536585 1.463505
4.364113 4.916387 2.657788
4.738532 3.530462 2.480343
1.771112 3.450649 0.374553
3.648046 1.611110 3.027011
4.019166 1.424356 2.444476
3.001626 0.004803 1.211743
2.928989 4.381320 3.562521
4.770676 5.270697 2.384796
3.780097 3.429837 0.534472
2.815225 5.362167 1.000953
2.318971 4.699755 3.462525
3.936613 5.918035 2.130579
3.737385 6.063535 2.641982
3.316644 0.868706 4.146766
1.191548 3.434484 3.517598
0.778675 1.095996 1.468813
0.883810 5.458196 2.367554
4.646529 2.902765 2.374257
2.023475 0.004028 1.839192
3.583514 4.181495 3.442432
3.260987 5.257779 1.011947
4.117489 0.735235 1.528412
3.898003 4.161115 0.632265
2.025024 5.639608 1.991557
3.763360 1.201643 1.215323
1.616830 4.925570 0.747396
1.917514 0.085965 3.410452
2.328196 5.410983 1.044947
0.452619 5.200379 1.453077
2.751560 0.004564 2.572104
3.907262 4.844385 1.001659
1.942111 1.729132 0.833592
1.002899 2.869642 0.762875
3.571836 0.330854 0.872179
0.534103 4.682168 1.457578
2.242574 0.633018 0.215291
0.722640 3.648832 0.808507
3.627726 6.092144 2.450951
3.469108 4.433313 0.519760
1.635134 3.900028 0.392205
3.707378 5.632177 1.495871
4.439953 5.031544 1.529711
2.199406 0.244394 0.272439
1.445299 5.512158 1.549250
2.152166 0.783743 0.447211
1.588479 4.593820 0.562544
2.811291 2.960120 3.628138
0.176646 3.780087 1.739734
4.371516 4.888287 2.620449
2.741755 4.480049 0.374994
1.298055 0.857155 4.068717
2.425189 0.004592 2.602138
1.480010 3.348288 0.450555
1.721399 0.004469 1.426944
1.914321 5.556419 1.463569
2.080917 0.003778 2.460122
